ncols                240
nrows                36
xllcorner      4530000
yllcorner      5680200
cellsize             100
NODATA_value       -9999
-9999.000  -9999.000  -9999.000  -9999.000  -9999.000  -9999.000  -9999.000  -9999.000  -9999.000  -9999.000  -9999.000  -9999.000  -9999.000  -9999.000    155.760    155.400    153.700    152.520    151.120    149.250    148.380    147.110    146.520    145.620    144.070    142.700    141.410    142.180    142.330    142.470    141.950    139.700    140.600    141.530    137.840    148.640    172.120    176.530    170.770    155.320    151.100    136.460    137.710    138.730    138.800    138.870    138.930    138.500    137.920    137.770    138.430    139.790    138.800    136.900    136.620    136.810    137.450    137.150    136.600    135.420    134.910    134.270    134.130    132.930    135.460    136.330    136.470    135.800    135.560    136.010    135.990    135.840    134.680    134.840    134.750    134.200    133.690    131.690    131.030    130.360    129.780    129.060    128.940    129.040    129.300    129.510    129.520    129.770    129.840    130.560    130.750    130.810    129.990    129.940    129.960    130.210    130.210    130.210    130.510    130.470    130.250    130.560    129.930    129.870    130.270    129.350    129.480    129.480    130.360    130.510    130.640    131.130    131.120    131.780    131.630    131.890    133.540    133.030    130.140    130.140    132.580    132.360    132.340    138.980    132.600    132.600    133.110    133.020    132.760    132.640    132.640    132.650    132.820    133.040    133.300    133.560    133.810    133.840    133.840    133.860    133.840    134.450    134.970    135.330    135.280    135.710    136.590    137.380    139.160    136.730    137.140    137.960    138.490    138.700    139.380    140.550    141.640    142.300    143.360    144.390    145.600    147.670    150.470    153.940    158.340    161.180    161.220    164.030    168.880    168.640    162.730    165.860    157.590    157.590    165.530  -9999.000  -9999.000  -9999.000  -9999.000  -9999.000  -9999.000  -9999.000  -9999.000  -9999.000  -9999.000  -9999.000  -9999.000  -9999.000  -9999.000  -9999.000  -9999.000  -9999.000  -9999.000  -9999.000  -9999.000  -9999.000  -9999.000  -9999.000  -9999.000  -9999.000  -9999.000  -9999.000  -9999.000  -9999.000  -9999.000  -9999.000  -9999.000  -9999.000  -9999.000  -9999.000  -9999.000  -9999.000  -9999.000  -9999.000  -9999.000  -9999.000  -9999.000  -9999.000  -9999.000  -9999.000  -9999.000  -9999.000  -9999.000  -9999.000  -9999.000  -9999.000  -9999.000  -9999.000  -9999.000  -9999.000  -9999.000  -9999.000  -9999.000  -9999.000  -9999.000  -9999.000  -9999.000  -9999.000  -9999.000  -9999.000
-9999.000  -9999.000  -9999.000  -9999.000  -9999.000  -9999.000  -9999.000  -9999.000  -9999.000  -9999.000  -9999.000  -9999.000  -9999.000  -9999.000    156.660    156.700    155.240    153.900    152.650    151.420    149.990    148.900    147.750    146.260    144.750    143.340    142.880    145.080    145.370    144.440    144.410    143.220    142.340    141.210    140.060    152.940    166.950    164.450    159.860    156.290    150.420    138.900    136.460    136.970    137.060    137.520    138.350    138.620    138.980    139.810    140.460    141.230    141.360    139.820    139.190    139.570    138.700    137.490    136.520    135.480    135.710    134.960    134.900    134.270    137.200    135.810    136.270    136.460    136.770    136.790    137.070    136.310    135.330    136.620    136.100    135.500    134.320    132.820    131.680    131.050    130.610    129.840    129.330    129.180    129.360    129.510    129.530    129.620    129.620    129.720    130.730    130.610    130.000    129.980    130.230    130.430    130.440    130.210    130.710    130.900    131.240    131.290    130.560    130.030    130.030    130.100    129.970    129.540    130.130    130.540    131.060    131.780    131.490    131.920    131.920    132.030    132.230    134.340    132.780    132.880    132.670    132.380    132.340    132.780    132.600    132.600    132.600    132.680    132.650    132.640    132.640    132.650    132.810    133.030    133.240    133.420    133.650    133.740    133.840    133.840    133.860    133.840    134.970    135.350    135.670    136.070    136.490    137.970    139.090    137.400    137.640    138.320    138.870    139.040    139.270    140.130    141.820    143.270    145.010    146.520    146.580    147.590    150.050    154.440    161.400    165.100    165.480    166.490    170.160    170.090    167.400    165.520    157.590    170.940    170.270  -9999.000  -9999.000  -9999.000  -9999.000  -9999.000  -9999.000  -9999.000  -9999.000  -9999.000  -9999.000  -9999.000  -9999.000  -9999.000  -9999.000  -9999.000  -9999.000  -9999.000  -9999.000  -9999.000  -9999.000  -9999.000  -9999.000  -9999.000  -9999.000  -9999.000  -9999.000  -9999.000  -9999.000  -9999.000  -9999.000  -9999.000  -9999.000  -9999.000  -9999.000  -9999.000  -9999.000  -9999.000  -9999.000  -9999.000  -9999.000  -9999.000  -9999.000  -9999.000  -9999.000  -9999.000  -9999.000  -9999.000  -9999.000  -9999.000  -9999.000  -9999.000  -9999.000  -9999.000  -9999.000  -9999.000  -9999.000  -9999.000  -9999.000  -9999.000  -9999.000  -9999.000  -9999.000  -9999.000  -9999.000  -9999.000
-9999.000  -9999.000  -9999.000  -9999.000  -9999.000  -9999.000  -9999.000  -9999.000  -9999.000  -9999.000  -9999.000  -9999.000  -9999.000  -9999.000    157.700    158.340    156.350    156.410    155.030    153.480    151.410    149.840    148.840    147.030    145.610    143.660    143.110    144.660    145.510    145.730    144.830    144.490    144.490    142.060    141.020    146.670    140.560    138.750    137.500    137.600    137.500    143.110    136.460    136.480    136.970    137.870    138.680    139.480    140.020    140.920    141.600    142.280    143.120    142.220    140.720    139.310    137.830    137.640    136.800    135.520    135.780    136.080    135.710    136.590    139.260    136.890    137.690    137.480    138.230    138.200    137.640    137.050    136.280    136.860    137.890    137.230    134.720    133.820    133.330    132.470    131.470    130.800    130.180    129.890    129.590    129.880    130.020    129.630    129.620    129.620    130.270    130.590    130.130    130.620    130.600    130.550    130.490    130.410    130.930    131.400    131.660    131.540    131.180    130.690    130.100    130.420    129.690    129.540    129.830    130.690    131.340    131.670    131.490    131.950    131.970    132.170    132.620    132.820    132.640    133.270    132.990    132.680    132.740    132.600    132.890    132.610    132.610    132.650    132.640    132.640    132.640    132.640    132.870    133.120    133.300    133.470    133.660    133.980    133.760    133.850    133.840    133.840    134.910    135.130    135.870    136.100    136.600    136.930    141.880    137.400    137.840    138.950    139.220    138.970    139.100    139.700    141.930    144.980    148.300    150.180    151.130    150.380    151.710    153.770    160.170    163.410    165.230    166.960    169.520    171.270    171.810    170.590    157.590    157.590    159.730    172.360  -9999.000  -9999.000  -9999.000  -9999.000  -9999.000  -9999.000  -9999.000  -9999.000  -9999.000  -9999.000  -9999.000  -9999.000  -9999.000  -9999.000  -9999.000  -9999.000  -9999.000  -9999.000  -9999.000  -9999.000  -9999.000  -9999.000  -9999.000  -9999.000  -9999.000  -9999.000  -9999.000  -9999.000  -9999.000  -9999.000  -9999.000  -9999.000  -9999.000  -9999.000  -9999.000  -9999.000  -9999.000  -9999.000  -9999.000  -9999.000  -9999.000  -9999.000  -9999.000  -9999.000  -9999.000  -9999.000  -9999.000  -9999.000  -9999.000  -9999.000  -9999.000  -9999.000  -9999.000  -9999.000  -9999.000  -9999.000  -9999.000  -9999.000  -9999.000  -9999.000  -9999.000  -9999.000  -9999.000  -9999.000
-9999.000  -9999.000  -9999.000  -9999.000  -9999.000  -9999.000  -9999.000  -9999.000  -9999.000  -9999.000  -9999.000  -9999.000  -9999.000  -9999.000    159.420    159.310    157.930    157.350    156.280    154.410    152.520    150.820    149.610    147.510    146.160    144.410    146.580    146.810    145.770    146.400    144.800    143.520    142.020    140.210    139.690    139.690    139.690    137.930    137.500    137.500    137.670    136.950    136.460    136.460    137.450    138.210    138.870    139.760    140.680    141.550    142.110    142.630    143.250    142.840    140.540    138.230    137.370    137.320    136.600    136.740    137.580    136.740    136.600    137.210    139.690    139.570    138.990    138.710    140.370    139.930    138.870    137.690    137.360    137.480    138.320    137.050    135.510    135.300    134.500    133.440    132.330    131.290    131.210    130.390    130.000    130.250    130.390    130.580    130.180    129.980    129.620    129.940    130.430    131.160    131.110    130.880    130.690    130.410    130.660    131.410    131.720    131.780    131.450    131.130    130.490    130.520    129.850    129.540    129.570    130.850    131.790    131.830    131.490    131.800    132.240    132.640    133.790    132.620    132.880    133.270    133.260    132.850    132.790    132.600    132.600    132.820    132.940    132.640    132.640    132.640    132.640    132.730    132.970    133.250    133.550    133.840    133.920    133.990    133.760    133.920    133.860    134.450    134.880    135.370    135.580    136.330    136.230    136.710    138.590    137.400    138.110    138.880    139.650    140.220    140.630    140.410    143.120    146.680    150.740    154.180    153.430    152.180    151.540    154.210    156.850    159.800    162.270    165.120    167.440    171.690    172.460    173.000    157.590    157.590    157.590    173.090  -9999.000  -9999.000  -9999.000  -9999.000  -9999.000  -9999.000  -9999.000  -9999.000  -9999.000  -9999.000  -9999.000  -9999.000  -9999.000  -9999.000  -9999.000  -9999.000  -9999.000  -9999.000  -9999.000  -9999.000  -9999.000  -9999.000  -9999.000  -9999.000  -9999.000  -9999.000  -9999.000  -9999.000  -9999.000  -9999.000  -9999.000  -9999.000  -9999.000  -9999.000  -9999.000  -9999.000  -9999.000  -9999.000  -9999.000  -9999.000  -9999.000  -9999.000  -9999.000  -9999.000  -9999.000  -9999.000  -9999.000  -9999.000  -9999.000  -9999.000  -9999.000  -9999.000  -9999.000  -9999.000  -9999.000  -9999.000  -9999.000  -9999.000  -9999.000  -9999.000  -9999.000  -9999.000  -9999.000  -9999.000
-9999.000  -9999.000  -9999.000  -9999.000  -9999.000  -9999.000  -9999.000  -9999.000  -9999.000  -9999.000  -9999.000  -9999.000  -9999.000  -9999.000  -9999.000    159.780    158.920    158.290    157.100    155.050    152.570    150.590    147.800    148.130    146.610    146.920    150.640    149.390    146.080    146.070    144.620    145.230    139.690    139.690    141.700    141.340    141.250    138.280    137.960    137.980    137.750    137.090    136.610    136.460    136.460    137.640    139.420    140.960    141.830    142.290    142.820    143.100    142.530    141.260    139.670    138.090    137.570    137.430    137.410    137.080    137.360    136.910    137.810    140.290    144.680    141.180    140.810    141.530    143.260    142.540    141.410    139.800    138.890    138.700    138.740    137.660    137.740    137.020    135.540    134.710    133.070    132.150    131.650    130.930    130.820    130.880    130.980    130.810    130.810    130.670    129.970    129.820    130.550    131.290    130.970    130.980    130.910    130.980    131.260    131.580    131.630    131.910    131.760    131.580    131.210    130.390    130.780    129.540    129.540    130.970    131.610    131.820    131.490    131.970    132.490    132.900    132.620    132.620    133.180    133.330    133.020    132.800    133.100    133.180    132.850    133.240    132.640    132.640    132.640    132.640    132.650    132.950    133.140    133.400    133.670    133.960    134.060    134.310    133.960    133.820    133.830    134.090    135.200    135.520    135.720    136.450    136.670    136.700    137.230    137.480    138.180    138.500    139.060    140.280    140.590    142.410    144.740    148.940    152.270    154.120    154.240    151.350    150.080    152.420    154.220    156.490    159.610    163.190    165.900    170.070    170.720    171.160    172.050    157.590    157.590    162.170    168.240  -9999.000  -9999.000  -9999.000  -9999.000  -9999.000  -9999.000  -9999.000  -9999.000  -9999.000  -9999.000  -9999.000  -9999.000  -9999.000  -9999.000  -9999.000  -9999.000  -9999.000  -9999.000  -9999.000  -9999.000  -9999.000  -9999.000  -9999.000  -9999.000  -9999.000  -9999.000  -9999.000  -9999.000  -9999.000  -9999.000  -9999.000  -9999.000  -9999.000  -9999.000  -9999.000  -9999.000  -9999.000  -9999.000  -9999.000  -9999.000  -9999.000  -9999.000  -9999.000  -9999.000  -9999.000  -9999.000  -9999.000  -9999.000  -9999.000  -9999.000  -9999.000  -9999.000  -9999.000  -9999.000  -9999.000  -9999.000  -9999.000  -9999.000  -9999.000  -9999.000  -9999.000  -9999.000  -9999.000
-9999.000  -9999.000  -9999.000  -9999.000  -9999.000  -9999.000  -9999.000  -9999.000  -9999.000  -9999.000  -9999.000  -9999.000  -9999.000  -9999.000  -9999.000    160.420    159.320    158.590    156.680    154.770    152.780    151.110    149.810    149.430    148.910    148.490    146.870    145.740    145.710    145.710    146.210    146.170    144.850    143.600    142.900    141.530    141.000    138.840    138.930    138.620    137.750    137.120    136.810    137.190    136.800    137.170    139.380    140.800    142.200    143.190    143.560    143.800    142.940    141.540    139.640    138.700    138.320    137.980    138.170    137.750    138.090    138.030    139.980    143.210    150.270    146.270    145.700    145.660    147.010    144.310    145.690    144.110    143.000    141.360    140.460    139.050    138.600    138.330    136.770    135.630    133.970    133.300    132.970    132.460    131.880    131.620    131.540    131.250    131.270    130.910    129.850    130.210    130.080    131.140    131.250    130.910    130.910    131.200    131.540    131.600    131.730    131.640    131.610    131.660    131.340    131.000    131.410    129.730    129.760    130.370    131.390    131.910    131.790    132.400    132.730    132.920    132.620    132.900    133.310    133.830    133.270    132.800    133.330    132.800    133.430    133.370    132.640    132.650    132.640    132.640    132.760    133.110    133.370    133.550    133.820    134.100    133.990    134.570    134.760    134.010    133.820    135.260    135.810    135.700    136.030    136.410    136.620    136.780    137.580    138.080    139.980    140.680    142.000    142.960    143.340    142.740    143.260    146.970    146.990    152.450    151.050    149.320    149.320    150.680    152.700    154.790    157.900    160.340    163.490    166.300    167.930    169.220    170.560    171.810    165.620    164.330    163.720  -9999.000  -9999.000  -9999.000  -9999.000  -9999.000  -9999.000  -9999.000  -9999.000  -9999.000  -9999.000  -9999.000  -9999.000  -9999.000  -9999.000  -9999.000  -9999.000  -9999.000  -9999.000  -9999.000  -9999.000  -9999.000  -9999.000  -9999.000  -9999.000  -9999.000  -9999.000  -9999.000  -9999.000  -9999.000  -9999.000  -9999.000  -9999.000  -9999.000  -9999.000  -9999.000  -9999.000  -9999.000  -9999.000  -9999.000  -9999.000  -9999.000  -9999.000  -9999.000  -9999.000  -9999.000  -9999.000  -9999.000  -9999.000  -9999.000  -9999.000  -9999.000  -9999.000  -9999.000  -9999.000  -9999.000  -9999.000  -9999.000  -9999.000  -9999.000  -9999.000  -9999.000  -9999.000  -9999.000
-9999.000  -9999.000  -9999.000  -9999.000  -9999.000  -9999.000  -9999.000  -9999.000  -9999.000  -9999.000  -9999.000  -9999.000  -9999.000  -9999.000    162.530    160.110    159.180    157.670    155.690    153.630    151.820    150.560    150.060    150.380    150.750    149.120    146.910    145.710    145.710    146.200    146.760    146.060    144.650    143.800    141.950    139.220    141.110    138.840    139.080    138.640    137.670    137.140    137.680    137.980    137.260    137.200    139.050    141.080    141.930    142.430    142.890    143.680    143.810    143.070    141.310    140.320    139.680    139.510    139.260    138.890    138.700    139.650    142.100    147.360    152.010    151.040    150.020    152.580    151.510    151.950    144.110    149.400    150.280    146.170    146.750    141.950    140.680    140.290    138.430    136.660    135.720    135.360    134.290    133.640    132.630    132.190    131.680    131.540    131.860    131.430    130.440    130.320    130.080    130.360    131.190    131.290    131.220    131.580    131.850    131.810    131.780    131.780    131.720    131.990    131.670    131.820    131.640    130.130    130.060    130.010    131.270    131.770    131.630    131.940    132.900    132.820    133.410    132.960    133.280    133.750    133.720    133.100    132.800    132.800    133.230    133.280    132.890    132.700    132.640    132.640    132.910    133.290    133.600    133.770    133.990    134.170    134.100    135.240    134.710    134.450    134.410    135.370    135.820    136.380    136.170    136.580    136.940    138.070    138.770    139.280    141.730    143.370    144.160    146.300    147.010    146.380    144.110    143.260    145.270    151.640    149.850    149.320    149.630    149.480    150.670    153.170    155.360    157.390    159.930    162.360    164.680    167.470    169.090    170.090    169.020    167.730    167.490  -9999.000  -9999.000  -9999.000  -9999.000  -9999.000  -9999.000  -9999.000  -9999.000  -9999.000  -9999.000  -9999.000  -9999.000  -9999.000  -9999.000  -9999.000  -9999.000  -9999.000  -9999.000  -9999.000  -9999.000  -9999.000  -9999.000  -9999.000  -9999.000  -9999.000  -9999.000  -9999.000  -9999.000  -9999.000  -9999.000  -9999.000  -9999.000  -9999.000  -9999.000  -9999.000  -9999.000  -9999.000  -9999.000  -9999.000  -9999.000  -9999.000  -9999.000  -9999.000  -9999.000  -9999.000  -9999.000  -9999.000  -9999.000  -9999.000  -9999.000  -9999.000  -9999.000  -9999.000  -9999.000  -9999.000  -9999.000  -9999.000  -9999.000  -9999.000  -9999.000  -9999.000  -9999.000  -9999.000
-9999.000  -9999.000  -9999.000  -9999.000  -9999.000  -9999.000  -9999.000  -9999.000  -9999.000  -9999.000  -9999.000  -9999.000  -9999.000  -9999.000    162.820    160.510    159.240    157.040    154.980    153.740    151.510    150.750    151.150    151.720    150.580    149.340    147.870    146.620    146.350    146.100    145.820    144.890    144.090    143.010    141.890    138.840    138.840    141.220    139.040    138.770    138.330    137.670    138.600    138.620    138.440    137.770    138.520    140.200    140.980    141.470    142.290    143.280    143.670    144.210    143.100    142.480    141.670    141.660    141.000    140.100    139.440    141.200    143.440    148.210    151.660    152.250    153.620    156.160    157.400    144.920    157.520    156.120    151.140    153.360    150.200    147.720    144.660    142.710    140.400    137.920    137.120    136.000    134.030    133.070    132.610    132.680    132.250    132.090    132.170    131.840    130.830    130.470    130.080    130.080    131.010    131.940    132.100    131.820    132.220    132.150    132.170    131.870    131.750    132.520    132.300    132.180    131.860    130.450    130.170    130.010    130.820    131.420    131.720    132.120    132.810    132.930    133.660    133.220    132.960    133.390    133.130    133.520    133.310    133.040    132.800    132.920    132.880    133.740    133.220    132.640    132.840    133.320    133.790    133.950    133.930    133.980    134.280    135.520    135.900    135.830    135.490    136.290    137.160    136.600    136.620    136.980    137.610    138.220    139.210    140.610    142.590    144.510    145.800    147.860    149.070    148.060    145.800    145.340    146.250    146.010    146.450    147.130    151.970    150.740    152.130    155.120    157.660    158.420    160.650    162.070    163.420    167.240    169.010    169.430    167.860    167.630    167.980    169.960  -9999.000  -9999.000  -9999.000  -9999.000  -9999.000  -9999.000  -9999.000  -9999.000  -9999.000  -9999.000  -9999.000  -9999.000  -9999.000  -9999.000  -9999.000  -9999.000  -9999.000  -9999.000  -9999.000  -9999.000  -9999.000  -9999.000  -9999.000  -9999.000  -9999.000  -9999.000  -9999.000  -9999.000  -9999.000  -9999.000  -9999.000  -9999.000  -9999.000  -9999.000  -9999.000  -9999.000  -9999.000  -9999.000  -9999.000  -9999.000  -9999.000  -9999.000  -9999.000  -9999.000  -9999.000  -9999.000  -9999.000  -9999.000  -9999.000  -9999.000  -9999.000  -9999.000  -9999.000  -9999.000  -9999.000  -9999.000  -9999.000  -9999.000  -9999.000  -9999.000  -9999.000  -9999.000
-9999.000  -9999.000  -9999.000  -9999.000  -9999.000  -9999.000  -9999.000  -9999.000  -9999.000  -9999.000  -9999.000  -9999.000  -9999.000  -9999.000    161.680    160.280    159.700    157.990    156.090    154.660    153.050    152.570    152.870    153.720    152.200    150.920    149.570    148.430    147.520    146.580    146.160    145.170    144.170    143.720    142.190    140.220    138.840    138.840    142.050    137.670    137.670    137.990    138.820    139.310    139.460    138.550    138.740    139.380    140.320    141.360    142.620    144.080    144.500    144.560    143.850    143.870    143.500    143.470    142.220    141.160    140.380    142.770    147.620    152.440    153.930    154.150    156.580    157.840    158.860    159.150    159.180    158.720    152.900    154.440    152.190    149.800    146.950    143.920    141.090    139.000    137.620    136.140    134.090    133.560    132.610    132.740    132.690    132.370    132.160    131.970    131.430    131.100    130.220    130.340    130.580    131.860    132.170    132.120    132.140    132.180    132.180    132.230    131.920    132.360    132.460    132.370    131.430    130.510    130.390    130.380    130.240    131.380    132.150    132.650    133.070    133.300    133.410    133.320    133.190    133.310    133.390    133.680    133.890    133.800    133.680    133.560    133.710    134.140    134.320    133.110    132.880    133.320    133.820    134.060    134.140    134.080    134.680    135.760    136.120    135.940    135.960    136.660    137.780    137.840    137.240    137.500    138.020    138.370    138.910    142.720    143.880    145.840    146.900    147.440    149.560    149.650    147.460    146.140    146.120    146.010    147.210    149.440    154.770    154.130    152.900    155.000    155.390    158.180    160.420    162.060    165.180    167.500    168.460    168.890    168.270    167.850    168.320    169.180    170.060  -9999.000  -9999.000  -9999.000  -9999.000  -9999.000  -9999.000  -9999.000  -9999.000  -9999.000  -9999.000  -9999.000  -9999.000  -9999.000  -9999.000  -9999.000  -9999.000  -9999.000  -9999.000  -9999.000  -9999.000  -9999.000  -9999.000  -9999.000  -9999.000  -9999.000  -9999.000  -9999.000  -9999.000  -9999.000  -9999.000  -9999.000  -9999.000  -9999.000  -9999.000  -9999.000  -9999.000  -9999.000  -9999.000  -9999.000  -9999.000  -9999.000  -9999.000  -9999.000  -9999.000  -9999.000  -9999.000  -9999.000  -9999.000  -9999.000  -9999.000  -9999.000  -9999.000  -9999.000  -9999.000  -9999.000  -9999.000  -9999.000  -9999.000  -9999.000  -9999.000  -9999.000
-9999.000  -9999.000  -9999.000  -9999.000  -9999.000  -9999.000  -9999.000  -9999.000  -9999.000  -9999.000  -9999.000  -9999.000  -9999.000  -9999.000    161.240    160.160    159.480    158.140    156.440    155.440    154.400    153.400    154.180    153.500    153.180    150.250    150.060    149.990    148.960    147.840    147.040    146.200    145.980    145.730    144.560    146.080    143.400    142.680    141.770    137.670    137.670    138.430    138.990    139.400    139.640    139.120    139.170    139.590    140.390    141.670    143.210    144.580    144.870    145.230    144.520    144.880    145.140    145.340    143.550    142.060    141.370    145.880    151.540    153.540    154.800    155.880    157.670    158.720    159.390    159.360    159.030    157.940    156.120    153.760    151.750    149.530    146.840    144.320    142.200    140.070    138.340    136.900    135.260    133.440    133.020    133.440    133.080    132.920    132.560    131.950    131.710    131.330    130.790    130.590    130.610    131.540    131.970    131.900    131.920    131.970    132.200    132.240    132.080    132.180    132.150    131.970    131.390    130.910    130.670    130.240    130.590    131.830    132.100    132.670    133.720    133.600    133.300    133.470    133.360    133.560    133.600    133.660    134.050    133.640    133.640    134.170    134.310    134.490    134.220    133.500    133.100    133.310    133.760    134.200    134.570    134.400    135.010    135.910    136.140    136.140    136.250    136.840    137.560    138.110    138.630    139.080    139.120    140.170    139.850    142.260    146.130    147.650    148.680    149.420    149.590    149.430    148.320    147.490    147.090    147.170    149.470    156.240    157.810    156.720    156.030    157.580    157.390    157.840    159.400    161.200    162.590    165.420    168.270    169.050    169.580    169.190    169.300    168.930    169.060    170.560  -9999.000  -9999.000  -9999.000  -9999.000  -9999.000  -9999.000  -9999.000  -9999.000  -9999.000  -9999.000  -9999.000  -9999.000  -9999.000  -9999.000  -9999.000  -9999.000  -9999.000  -9999.000  -9999.000  -9999.000  -9999.000  -9999.000  -9999.000  -9999.000  -9999.000  -9999.000  -9999.000  -9999.000  -9999.000  -9999.000  -9999.000  -9999.000  -9999.000  -9999.000  -9999.000  -9999.000  -9999.000  -9999.000  -9999.000  -9999.000  -9999.000  -9999.000  -9999.000  -9999.000  -9999.000  -9999.000  -9999.000  -9999.000  -9999.000  -9999.000  -9999.000  -9999.000  -9999.000  -9999.000  -9999.000  -9999.000  -9999.000  -9999.000  -9999.000  -9999.000
-9999.000  -9999.000  -9999.000  -9999.000  -9999.000  -9999.000  -9999.000  -9999.000  -9999.000  -9999.000  -9999.000  -9999.000  -9999.000  -9999.000    161.560    161.160    159.710    158.600    157.650    156.150    154.910    154.400    155.480    154.160    153.600    152.260    150.330    151.250    150.600    149.680    148.550    147.570    147.320    147.330    146.530    147.450    143.760    142.790    141.640    141.000    140.000    138.980    139.140    139.400    139.770    139.120    139.380    140.080    141.030    142.150    143.200    144.140    145.310    145.800    145.740    146.220    146.680    146.530    145.700    143.650    142.780    144.690    149.610    151.810    153.210    155.940    157.360    158.080    158.540    158.560    158.500    157.810    156.220    153.930    152.420    150.430    148.190    146.420    144.480    142.320    139.750    137.800    136.120    134.940    134.570    134.040    133.500    133.130    132.630    132.100    131.910    131.660    130.880    131.020    131.260    131.500    131.500    131.720    131.920    131.920    132.120    132.130    132.020    132.630    132.790    132.490    131.280    131.280    131.250    130.240    130.320    131.500    132.140    132.870    133.500    133.510    133.740    133.730    133.790    133.830    133.700    133.930    134.720    134.060    134.360    134.180    134.210    134.570    134.460    133.800    133.390    133.590    133.740    134.600    134.900    134.630    135.720    136.070    136.320    136.400    136.300    136.970    137.660    138.380    138.990    139.880    140.560    140.760    142.880    145.470    146.860    149.120    150.710    151.570    150.990    150.510    149.790    148.970    148.600    148.650    149.100    150.430    154.030    162.090    159.630    161.520    161.750    161.950    162.270    168.430    166.240    165.230    170.440    172.620    172.470    171.670    172.400    170.730  -9999.000  -9999.000  -9999.000  -9999.000  -9999.000  -9999.000  -9999.000  -9999.000  -9999.000  -9999.000  -9999.000  -9999.000  -9999.000  -9999.000  -9999.000  -9999.000  -9999.000  -9999.000  -9999.000  -9999.000  -9999.000  -9999.000  -9999.000  -9999.000  -9999.000  -9999.000  -9999.000  -9999.000  -9999.000  -9999.000  -9999.000  -9999.000  -9999.000  -9999.000  -9999.000  -9999.000  -9999.000  -9999.000  -9999.000  -9999.000  -9999.000  -9999.000  -9999.000  -9999.000  -9999.000  -9999.000  -9999.000  -9999.000  -9999.000  -9999.000  -9999.000  -9999.000  -9999.000  -9999.000  -9999.000  -9999.000  -9999.000  -9999.000  -9999.000  -9999.000  -9999.000  -9999.000
-9999.000  -9999.000  -9999.000  -9999.000  -9999.000  -9999.000  -9999.000  -9999.000  -9999.000  -9999.000  -9999.000  -9999.000  -9999.000  -9999.000    161.450    160.800    160.480    159.540    158.300    156.870    155.920    155.580    156.000    155.750    154.900    154.340    152.980    152.960    152.290    151.730    151.300    149.970    148.900    149.090    147.370    146.310    144.930    143.710    142.720    141.600    140.340    139.510    139.800    140.040    139.860    139.240    139.890    140.850    142.050    143.700    144.470    144.640    144.910    145.210    146.070    146.820    148.040    148.210    147.130    145.570    145.470    144.930    144.990    148.160    149.580    154.220    155.400    156.420    157.140    157.260    157.490    157.180    156.100    154.230    152.670    150.670    148.530    146.460    144.920    143.570    140.840    138.660    137.010    135.880    134.950    134.460    134.160    133.290    132.810    132.470    131.910    131.610    130.880    131.210    131.370    131.700    131.880    131.880    131.940    131.920    132.040    132.020    132.060    132.720    132.190    131.610    131.600    131.220    131.110    130.240    130.880    131.740    131.730    132.960    132.910    133.470    133.880    133.860    134.210    134.650    134.240    134.550    134.830    134.650    134.430    134.070    134.350    134.660    134.230    134.040    133.690    133.880    133.920    134.530    134.950    134.850    135.230    135.870    136.350    136.600    136.810    136.310    138.010    138.750    139.200    140.040    141.220    142.290    144.340    147.040    148.740    150.060    151.940    152.710    153.000    152.840    152.180    151.390    150.830    151.350    155.400    160.050    158.450    160.200    162.620    167.560    172.250    172.120    164.840    171.350    170.150    169.040    170.080    174.430    174.760    174.200    174.020  -9999.000  -9999.000  -9999.000  -9999.000  -9999.000  -9999.000  -9999.000  -9999.000  -9999.000  -9999.000  -9999.000  -9999.000  -9999.000  -9999.000  -9999.000  -9999.000  -9999.000  -9999.000  -9999.000  -9999.000  -9999.000  -9999.000  -9999.000  -9999.000  -9999.000  -9999.000  -9999.000  -9999.000  -9999.000  -9999.000  -9999.000  -9999.000  -9999.000  -9999.000  -9999.000  -9999.000  -9999.000  -9999.000  -9999.000  -9999.000  -9999.000  -9999.000  -9999.000  -9999.000  -9999.000  -9999.000  -9999.000  -9999.000  -9999.000  -9999.000  -9999.000  -9999.000  -9999.000  -9999.000  -9999.000  -9999.000  -9999.000  -9999.000  -9999.000  -9999.000  -9999.000  -9999.000  -9999.000
-9999.000  -9999.000  -9999.000  -9999.000  -9999.000  -9999.000  -9999.000  -9999.000  -9999.000  -9999.000  -9999.000  -9999.000  -9999.000  -9999.000    162.150    161.400    160.990    160.200    159.060    157.980    156.990    156.760    156.740    155.910    155.480    155.500    154.840    154.780    154.510    153.490    153.740    152.420    150.520    148.950    147.390    145.730    144.380    143.550    142.870    141.820    140.940    139.930    140.540    140.380    139.860    139.650    140.350    141.080    142.100    143.320    145.520    146.670    146.650    144.980    145.500    146.370    148.680    149.760    149.080    148.090    148.040    147.360    147.560    146.370    146.840    151.190    152.070    153.640    154.340    155.920    156.240    156.120    154.840    152.470    150.680    148.560    146.630    144.640    142.600    141.850    139.980    138.230    137.080    136.080    135.310    134.940    134.220    133.230    132.870    132.610    131.810    131.510    131.140    131.070    131.480    131.850    132.200    132.010    132.000    131.990    131.990    132.360    132.430    132.070    132.060    132.460    132.380    131.140    130.240    130.240    130.680    131.040    131.690    132.550    133.360    133.820    133.980    133.940    134.610    134.650    134.510    134.580    134.850    134.590    134.670    134.060    134.740    135.030    135.060    133.880    133.980    133.920    133.950    134.460    135.180    135.010    134.780    134.770    136.370    136.470    136.880    137.040    138.240    138.930    139.190    140.110    141.340    142.950    145.000    147.240    148.970    151.370    153.440    155.880    156.510    156.070    155.070    154.280    153.470    152.930    156.150    161.650    161.320    158.450    162.760    172.150    175.160    173.520    171.070    165.680    172.020    170.960    170.330    173.240    175.590    176.210  -9999.000  -9999.000  -9999.000  -9999.000  -9999.000  -9999.000  -9999.000  -9999.000  -9999.000  -9999.000  -9999.000  -9999.000  -9999.000  -9999.000  -9999.000  -9999.000  -9999.000  -9999.000  -9999.000  -9999.000  -9999.000  -9999.000  -9999.000  -9999.000  -9999.000  -9999.000  -9999.000  -9999.000  -9999.000  -9999.000  -9999.000  -9999.000  -9999.000  -9999.000  -9999.000  -9999.000  -9999.000  -9999.000  -9999.000  -9999.000  -9999.000  -9999.000  -9999.000  -9999.000  -9999.000  -9999.000  -9999.000  -9999.000  -9999.000  -9999.000  -9999.000  -9999.000  -9999.000  -9999.000  -9999.000  -9999.000  -9999.000  -9999.000  -9999.000  -9999.000  -9999.000  -9999.000  -9999.000  -9999.000
-9999.000  -9999.000  -9999.000  -9999.000  -9999.000  -9999.000  -9999.000  -9999.000  -9999.000  -9999.000  -9999.000  -9999.000  -9999.000  -9999.000  -9999.000    161.200    161.070    160.330    159.490    158.740    157.860    157.360    156.870    156.170    155.790    155.450    154.860    155.280    156.640    154.870    154.860    152.800    151.050    148.960    147.640    146.150    144.200    143.050    142.320    142.120    141.410    140.360    140.540    140.350    140.200    140.310    140.590    141.240    142.360    143.090    143.930    143.850    144.350    145.560    146.780    147.660    149.150    149.900    149.520    149.370    149.810    150.870    150.230    149.430    150.250    149.120    149.720    151.680    152.760    154.330    155.130    155.080    153.550    150.990    149.150    147.130    145.380    143.740    141.790    140.470    139.280    138.150    137.670    137.010    135.630    134.800    134.190    133.310    133.110    133.040    132.220    131.810    131.270    131.300    131.730    132.140    132.220    132.360    132.710    132.760    132.640    132.670    132.460    132.730    132.440    132.350    132.120    131.690    130.240    130.500    131.740    131.520    131.740    132.670    133.220    133.720    133.780    133.630    133.770    134.570    134.500    134.680    134.670    134.920    134.960    134.620    134.000    134.000    134.010    134.670    135.450    135.440    134.880    134.630    134.540    134.840    134.760    134.850    135.750    136.500    137.000    137.500    138.290    138.980    139.410    139.690    141.130    143.830    145.510    147.980    150.120    152.900    158.280    160.000    160.260    159.980    159.280    159.010    157.390    156.060    157.250    161.190    162.190    159.540    162.220    165.200    169.410    170.200    171.900    171.380    168.610    171.750    171.380    173.670    174.960  -9999.000  -9999.000  -9999.000  -9999.000  -9999.000  -9999.000  -9999.000  -9999.000  -9999.000  -9999.000  -9999.000  -9999.000  -9999.000  -9999.000  -9999.000  -9999.000  -9999.000  -9999.000  -9999.000  -9999.000  -9999.000  -9999.000  -9999.000  -9999.000  -9999.000  -9999.000  -9999.000  -9999.000  -9999.000  -9999.000  -9999.000  -9999.000  -9999.000  -9999.000  -9999.000  -9999.000  -9999.000  -9999.000  -9999.000  -9999.000  -9999.000  -9999.000  -9999.000  -9999.000  -9999.000  -9999.000  -9999.000  -9999.000  -9999.000  -9999.000  -9999.000  -9999.000  -9999.000  -9999.000  -9999.000  -9999.000  -9999.000  -9999.000  -9999.000  -9999.000  -9999.000  -9999.000  -9999.000  -9999.000  -9999.000
-9999.000  -9999.000  -9999.000  -9999.000  -9999.000  -9999.000  -9999.000  -9999.000  -9999.000  -9999.000  -9999.000  -9999.000  -9999.000  -9999.000    161.180    161.200    161.400    159.960    159.380    158.790    157.950    157.610    156.800    155.900    155.390    154.920    154.150    153.970    155.010    155.970    154.850    152.000    150.010    149.020    147.950    145.730    144.200    142.870    142.260    142.180    142.020    141.010    140.740    140.520    140.570    141.130    141.180    141.010    141.790    142.300    143.850    144.290    146.480    149.030    150.720    151.680    151.720    152.110    151.970    152.060    153.810    153.490    152.600    151.230    152.490    151.800    152.170    152.530    152.620    153.750    154.900    155.190    154.410    152.730    151.330    148.650    146.960    145.200    143.070    142.210    140.970    139.300    138.240    137.180    136.080    135.250    133.880    133.250    132.930    132.820    132.780    132.380    131.620    131.270    131.550    132.160    132.700    132.510    132.320    132.350    132.640    132.490    131.980    132.160    132.030    132.510    132.490    131.470    130.240    130.600    130.500    130.960    131.640    131.930    132.860    133.020    133.640    133.630    133.790    134.610    134.350    134.550    134.850    134.930    134.750    134.070    134.000    134.070    134.480    135.170    135.320    135.160    134.920    134.540    134.540    134.750    134.970    135.160    135.180    135.830    136.850    137.510    137.940    137.700    139.870    140.730    142.070    143.950    146.320    149.220    152.350    155.690    159.800    163.610    165.980    165.310    164.940    164.680    163.140    159.060    157.350    159.760    162.640    161.400    161.490    161.490    163.790    166.950    169.880    172.680    172.080    171.330    171.330    172.950    174.380  -9999.000  -9999.000  -9999.000  -9999.000  -9999.000  -9999.000  -9999.000  -9999.000  -9999.000  -9999.000  -9999.000  -9999.000  -9999.000  -9999.000  -9999.000  -9999.000  -9999.000  -9999.000  -9999.000  -9999.000  -9999.000  -9999.000  -9999.000  -9999.000  -9999.000  -9999.000  -9999.000  -9999.000  -9999.000  -9999.000  -9999.000  -9999.000  -9999.000  -9999.000  -9999.000  -9999.000  -9999.000  -9999.000  -9999.000  -9999.000  -9999.000  -9999.000  -9999.000  -9999.000  -9999.000  -9999.000  -9999.000  -9999.000  -9999.000  -9999.000  -9999.000  -9999.000  -9999.000  -9999.000  -9999.000  -9999.000  -9999.000  -9999.000  -9999.000  -9999.000  -9999.000  -9999.000  -9999.000  -9999.000  -9999.000
-9999.000  -9999.000  -9999.000  -9999.000  -9999.000  -9999.000  -9999.000  -9999.000  -9999.000  -9999.000  -9999.000  -9999.000  -9999.000  -9999.000    160.660    160.430    159.880    159.320    158.830    157.790    157.250    156.460    155.330    154.710    153.970    153.260    153.450    153.350    153.040    152.210    151.260    149.410    148.040    145.940    146.720    143.900    143.040    142.830    142.820    142.620    142.280    141.740    141.280    141.300    141.550    141.540    141.500    142.450    141.870    144.540    144.540    146.540    149.650    153.610    156.570    157.310    156.430    156.460    155.940    155.900    155.960    155.590    154.970    153.000    153.840    153.430    153.790    154.010    153.530    154.340    155.940    156.070    155.320    153.790    152.130    150.950    149.320    146.880    145.620    144.680    142.870    140.850    139.300    137.970    136.410    135.720    134.190    133.230    132.820    132.900    132.650    132.760    132.300    132.120    131.970    131.760    132.520    132.270    132.360    132.300    132.810    132.860    131.980    131.980    131.980    132.320    132.020    131.290    130.810    130.990    130.580    130.520    131.770    131.760    132.720    132.950    133.550    133.640    133.990    133.810    133.880    133.970    134.520    134.630    134.000    134.000    134.000    134.580    134.930    135.160    134.970    134.840    134.590    134.540    134.680    134.910    135.070    135.180    135.460    135.740    135.950    136.600    137.290    138.480    139.620    141.660    142.920    145.090    147.110    151.150    156.650    160.480    166.960    169.600    169.770    169.130    168.740    167.900    161.980    156.740    154.880    157.260    162.110    162.400    164.950    165.330    164.800    166.610    170.680    172.640    172.120    171.530    171.730    172.710    175.010  -9999.000  -9999.000  -9999.000  -9999.000  -9999.000  -9999.000  -9999.000  -9999.000  -9999.000  -9999.000  -9999.000  -9999.000  -9999.000  -9999.000  -9999.000  -9999.000  -9999.000  -9999.000  -9999.000  -9999.000  -9999.000  -9999.000  -9999.000  -9999.000  -9999.000  -9999.000  -9999.000  -9999.000  -9999.000  -9999.000  -9999.000  -9999.000  -9999.000  -9999.000  -9999.000  -9999.000  -9999.000  -9999.000  -9999.000  -9999.000  -9999.000  -9999.000  -9999.000  -9999.000  -9999.000  -9999.000  -9999.000  -9999.000  -9999.000  -9999.000  -9999.000  -9999.000  -9999.000  -9999.000  -9999.000  -9999.000  -9999.000  -9999.000  -9999.000  -9999.000  -9999.000  -9999.000  -9999.000  -9999.000  -9999.000
-9999.000  -9999.000  -9999.000  -9999.000  -9999.000  -9999.000  -9999.000  -9999.000  -9999.000  -9999.000  -9999.000  -9999.000  -9999.000  -9999.000  -9999.000    159.880    159.900    159.240    159.240    157.630    156.710    156.030    155.110    154.140    152.550    151.990    152.790    153.590    151.950    150.520    149.390    148.180    146.810    144.740    143.920    144.830    143.930    143.450    143.520    143.350    142.300    142.120    142.330    142.240    142.270    142.290    142.540    142.760    142.570    146.160    148.760    156.990    158.290    158.990    159.250    158.620    158.490    158.290    157.860    157.210    156.840    156.770    154.650    155.400    156.180    155.620    155.350    155.060    155.400    156.220    156.380    156.090    154.850    153.970    152.400    150.630    149.390    148.000    145.410    142.850    141.100    139.740    138.230    136.720    136.090    134.580    133.700    133.340    133.280    133.100    132.660    132.270    132.090    131.760    131.760    132.530    132.090    132.240    132.290    132.770    132.960    132.370    132.400    132.180    132.180    131.980    131.540    131.380    131.220    130.900    130.550    131.580    131.880    132.050    132.710    133.010    133.600    133.750    133.700    133.860    133.850    133.660    134.240    134.000    134.430    134.850    145.080    137.010    134.710    134.710    134.760    134.760    134.810    134.900    135.240    135.340    135.530    135.830    136.040    136.380    137.010    137.940    138.680    139.960    141.510    144.020    146.560    148.410    152.380    161.000    164.630    174.800    169.210    168.530    167.220    163.720    160.630    156.720    153.270    152.190    154.720    160.320    165.630    169.760    173.900    168.870    170.500    174.230    174.650    173.260    172.520    172.790    173.740    174.530    174.920  -9999.000  -9999.000  -9999.000  -9999.000  -9999.000  -9999.000  -9999.000  -9999.000  -9999.000  -9999.000  -9999.000  -9999.000  -9999.000  -9999.000  -9999.000  -9999.000  -9999.000  -9999.000  -9999.000  -9999.000  -9999.000  -9999.000  -9999.000  -9999.000  -9999.000  -9999.000  -9999.000  -9999.000  -9999.000  -9999.000  -9999.000  -9999.000  -9999.000  -9999.000  -9999.000  -9999.000  -9999.000  -9999.000  -9999.000  -9999.000  -9999.000  -9999.000  -9999.000  -9999.000  -9999.000  -9999.000  -9999.000  -9999.000  -9999.000  -9999.000  -9999.000  -9999.000  -9999.000  -9999.000  -9999.000  -9999.000  -9999.000  -9999.000  -9999.000  -9999.000  -9999.000  -9999.000  -9999.000  -9999.000  -9999.000
-9999.000  -9999.000  -9999.000  -9999.000  -9999.000  -9999.000  -9999.000  -9999.000  -9999.000  -9999.000  -9999.000  -9999.000  -9999.000  -9999.000  -9999.000    159.470    159.250    158.430    157.910    157.220    156.240    155.560    154.970    153.810    152.020    151.090    150.000    150.130    149.640    148.390    147.240    145.820    144.890    145.170    146.140    147.020    145.680    144.340    143.720    143.100    144.570    142.670    143.340    143.890    143.400    142.940    142.890    142.790    143.790    146.380    149.810    154.210    157.510    157.900    158.590    158.590    158.410    158.450    158.830    158.350    158.290    158.650    158.050    157.960    157.940    156.700    156.490    156.030    156.180    157.100    157.310    157.190    156.140    155.140    154.120    153.170    151.570    148.920    146.510    144.970    143.790    142.170    140.060    138.070    136.430    135.070    134.400    133.740    133.270    132.930    132.690    132.530    132.050    132.000    132.060    132.660    132.290    132.560    132.520    132.540    132.570    132.240    132.200    132.000    131.950    131.860    131.760    131.330    131.460    131.030    130.830    131.830    132.740    132.490    132.740    132.910    133.460    133.700    133.720    133.170    132.930    133.150    133.560    134.140    134.650    135.160    137.960    134.960    134.710    134.710    134.710    135.350    135.160    135.150    135.540    135.550    135.800    136.110    136.110    136.500    137.290    138.260    139.630    141.160    142.320    143.720    146.930    150.010    153.900    160.300    162.040    163.980    164.650    163.070    161.020    158.320    155.550    152.470    150.570    149.960    153.410    157.590    162.050    169.370    171.930    172.200    171.380    173.460    174.160    174.260    173.990    174.580    175.130    174.700  -9999.000  -9999.000  -9999.000  -9999.000  -9999.000  -9999.000  -9999.000  -9999.000  -9999.000  -9999.000  -9999.000  -9999.000  -9999.000  -9999.000  -9999.000  -9999.000  -9999.000  -9999.000  -9999.000  -9999.000  -9999.000  -9999.000  -9999.000  -9999.000  -9999.000  -9999.000  -9999.000  -9999.000  -9999.000  -9999.000  -9999.000  -9999.000  -9999.000  -9999.000  -9999.000  -9999.000  -9999.000  -9999.000  -9999.000  -9999.000  -9999.000  -9999.000  -9999.000  -9999.000  -9999.000  -9999.000  -9999.000  -9999.000  -9999.000  -9999.000  -9999.000  -9999.000  -9999.000  -9999.000  -9999.000  -9999.000  -9999.000  -9999.000  -9999.000  -9999.000  -9999.000  -9999.000  -9999.000  -9999.000  -9999.000  -9999.000
-9999.000  -9999.000  -9999.000  -9999.000  -9999.000  -9999.000  -9999.000  -9999.000  -9999.000  -9999.000  -9999.000  -9999.000  -9999.000  -9999.000    158.950    158.800    158.740    157.800    157.420    156.520    155.150    153.950    153.470    152.650    151.620    150.970    149.850    148.670    147.640    146.810    146.260    146.720    147.290    147.810    148.050    147.130    145.140    145.080    145.770    145.010    145.760    144.500    144.130    145.150    145.230    144.050    143.800    143.860    143.510    146.190    149.410    152.050    153.520    154.640    155.840    156.580    157.170    157.240    157.430    158.050    158.220    158.620    158.730    158.860    158.810    157.680    157.490    157.140    157.390    157.420    157.920    157.510    156.460    155.110    154.180    152.930    151.490    150.250    148.900    147.600    145.940    143.890    141.650    139.800    138.310    136.440    135.160    134.360    133.550    132.970    133.080    132.840    132.870    132.600    132.630    132.420    132.450    132.810    132.780    132.750    132.630    132.470    132.240    132.120    132.080    131.990    131.920    131.340    131.380    131.240    131.580    132.180    132.110    132.110    132.800    132.940    132.840    132.760    132.700    132.930    133.420    133.660    133.150    133.150    133.420    134.760    134.880    134.970    134.710    134.710    134.710    135.230    135.460    135.280    135.470    136.130    136.350    136.380    136.460    136.720    137.190    138.520    140.150    142.330    143.170    144.200    146.730    150.370    155.490    162.630    161.170    160.270    160.140    158.660    156.570    154.170    151.620    149.520    148.420    149.740    152.080    154.620    158.360    166.830    172.590    171.420    171.700    172.880    175.460    175.580    174.450    176.240    176.110    175.360    176.010    175.710    179.660  -9999.000  -9999.000  -9999.000  -9999.000  -9999.000  -9999.000  -9999.000  -9999.000  -9999.000  -9999.000  -9999.000  -9999.000  -9999.000  -9999.000  -9999.000  -9999.000  -9999.000  -9999.000  -9999.000  -9999.000  -9999.000  -9999.000  -9999.000  -9999.000  -9999.000  -9999.000  -9999.000  -9999.000  -9999.000  -9999.000  -9999.000  -9999.000  -9999.000  -9999.000  -9999.000  -9999.000  -9999.000  -9999.000  -9999.000  -9999.000  -9999.000  -9999.000  -9999.000  -9999.000  -9999.000  -9999.000  -9999.000  -9999.000  -9999.000  -9999.000  -9999.000  -9999.000  -9999.000  -9999.000  -9999.000  -9999.000  -9999.000  -9999.000  -9999.000  -9999.000  -9999.000  -9999.000  -9999.000
-9999.000  -9999.000  -9999.000  -9999.000  -9999.000  -9999.000  -9999.000  -9999.000  -9999.000  -9999.000  -9999.000  -9999.000  -9999.000  -9999.000    158.860    158.360    158.260    157.320    156.880    155.870    154.640    153.690    152.540    150.930    149.900    149.460    148.460    148.460    148.560    148.740    148.990    149.270    149.570    149.060    148.040    146.450    146.380    146.300    149.650    148.900    148.620    145.900    146.280    148.010    147.180    145.880    145.540    145.360    146.850    143.960    147.660    148.920    149.130    151.360    152.350    153.810    154.950    155.410    155.800    157.360    157.750    157.700    158.520    158.970    159.240    158.500    158.230    158.420    158.470    158.410    158.710    157.960    156.340    154.370    152.500    150.500    149.650    149.230    148.290    147.630    146.300    144.480    142.450    141.080    138.960    137.020    135.620    134.690    133.590    133.790    132.870    133.050    133.090    133.190    133.100    132.770    132.650    132.570    132.870    132.930    132.860    132.690    132.550    132.540    132.290    132.000    131.860    131.360    131.350    131.500    131.820    131.560    132.140    132.650    132.110    132.720    132.650    132.640    132.650    132.990    133.700    134.140    134.240    133.240    133.870    133.840    134.470    134.780    135.440    134.710    134.870    135.520    135.990    136.540    136.360    136.800    136.860    136.720    136.820    137.040    137.490    138.500    140.220    141.710    143.570    144.420    146.950    150.590    153.930    157.350    157.730    156.460    156.460    156.710    154.240    151.570    149.420    147.900    148.220    149.850    151.210    153.660    156.720    162.070    165.410    170.620    172.040    173.340    175.420    174.960    174.780    173.860    174.930    175.480    174.630    174.950    176.000  -9999.000  -9999.000  -9999.000  -9999.000  -9999.000  -9999.000  -9999.000  -9999.000  -9999.000  -9999.000  -9999.000  -9999.000  -9999.000  -9999.000  -9999.000  -9999.000  -9999.000  -9999.000  -9999.000  -9999.000  -9999.000  -9999.000  -9999.000  -9999.000  -9999.000  -9999.000  -9999.000  -9999.000  -9999.000  -9999.000  -9999.000  -9999.000  -9999.000  -9999.000  -9999.000  -9999.000  -9999.000  -9999.000  -9999.000  -9999.000  -9999.000  -9999.000  -9999.000  -9999.000  -9999.000  -9999.000  -9999.000  -9999.000  -9999.000  -9999.000  -9999.000  -9999.000  -9999.000  -9999.000  -9999.000  -9999.000  -9999.000  -9999.000  -9999.000  -9999.000  -9999.000  -9999.000  -9999.000
-9999.000  -9999.000  -9999.000  -9999.000  -9999.000  -9999.000  -9999.000  -9999.000  -9999.000  -9999.000  -9999.000  -9999.000  -9999.000  -9999.000  -9999.000    158.350    157.550    156.930    156.370    155.320    154.630    154.070    152.930    150.860    149.100    149.020    150.560    150.910    151.370    151.130    150.950    150.830    150.310    149.050    147.360    148.190    148.980    147.590    149.340    150.510    150.730    148.220    150.200    150.850    150.140    149.000    148.280    145.360    147.070    147.490    146.140    146.140    146.140    147.650    150.150    151.290    152.530    153.010    153.290    154.860    155.850    156.970    158.170    159.040    159.200    159.540    159.930    159.880    159.830    159.580    159.420    158.310    156.230    153.790    151.320    148.900    147.240    146.840    145.970    145.830    145.680    145.280    143.500    141.490    139.340    136.810    135.290    134.530    134.210    134.090    133.900    133.620    134.020    133.470    133.030    133.050    132.950    132.790    132.920    133.000    132.880    132.760    132.870    132.850    132.510    132.130    131.950    131.370    131.400    131.460    131.490    131.440    132.310    132.670    132.500    132.640    132.680    132.650    132.640    132.850    133.260    133.740    134.140    134.380    134.280    133.880    134.570    134.640    135.460    135.940    135.410    135.440    136.070    136.610    136.520    136.360    136.360    136.910    137.130    137.740    138.120    138.650    140.160    141.570    143.220    144.380    147.190    151.110    154.140    155.920    154.660    153.320    153.520    153.740    152.190    149.920    148.300    147.410    148.310    149.450    150.840    152.120    156.930    160.010    163.400    170.550    172.130    172.030    172.360    172.000    172.240    172.640    173.280    173.840    174.220  -9999.000  -9999.000  -9999.000  -9999.000  -9999.000  -9999.000  -9999.000  -9999.000  -9999.000  -9999.000  -9999.000  -9999.000  -9999.000  -9999.000  -9999.000  -9999.000  -9999.000  -9999.000  -9999.000  -9999.000  -9999.000  -9999.000  -9999.000  -9999.000  -9999.000  -9999.000  -9999.000  -9999.000  -9999.000  -9999.000  -9999.000  -9999.000  -9999.000  -9999.000  -9999.000  -9999.000  -9999.000  -9999.000  -9999.000  -9999.000  -9999.000  -9999.000  -9999.000  -9999.000  -9999.000  -9999.000  -9999.000  -9999.000  -9999.000  -9999.000  -9999.000  -9999.000  -9999.000  -9999.000  -9999.000  -9999.000  -9999.000  -9999.000  -9999.000  -9999.000  -9999.000  -9999.000  -9999.000  -9999.000  -9999.000
-9999.000  -9999.000  -9999.000  -9999.000  -9999.000  -9999.000  -9999.000  -9999.000  -9999.000  -9999.000  -9999.000  -9999.000  -9999.000  -9999.000  -9999.000    158.300    157.150    156.290    155.570    154.520    154.450    153.860    152.810    150.710    149.020    150.720    152.600    153.230    152.860    152.500    152.150    151.760    150.820    149.260    148.290    150.480    150.510    149.450    149.860    151.540    151.560    150.000    150.570    152.370    152.580    152.120    151.100    148.140    147.430    147.440    147.410    146.990    146.140    146.140    148.510    148.940    149.410    150.030    150.780    153.170    155.650    156.730    157.740    158.750    159.510    160.130    160.590    160.620    160.660    160.250    159.510    158.350    156.120    153.670    151.560    148.990    147.210    145.750    144.130    143.050    142.270    142.240    140.580    138.610    137.180    136.270    135.640    135.560    134.890    134.590    133.750    133.970    134.210    133.830    133.590    133.170    133.220    133.330    133.140    132.950    132.950    132.920    132.870    132.980    132.970    132.610    132.230    131.530    131.590    131.440    131.440    131.440    131.820    132.720    132.780    132.700    132.640    132.640    132.740    132.860    133.170    133.460    133.860    133.910    134.490    134.300    134.630    134.790    134.850    135.010    135.520    135.920    135.480    135.910    136.810    136.360    136.360    136.360    137.350    137.770    137.780    138.710    139.890    141.180    142.690    144.320    147.300    150.870    152.410    151.630    150.690    150.060    149.810    149.780    149.140    148.110    147.150    147.220    148.290    149.350    150.440    151.490    152.130    158.710    161.170    165.990    171.060    168.570    172.000    172.140    172.000    172.000    172.110    172.430    173.110  -9999.000  -9999.000  -9999.000  -9999.000  -9999.000  -9999.000  -9999.000  -9999.000  -9999.000  -9999.000  -9999.000  -9999.000  -9999.000  -9999.000  -9999.000  -9999.000  -9999.000  -9999.000  -9999.000  -9999.000  -9999.000  -9999.000  -9999.000  -9999.000  -9999.000  -9999.000  -9999.000  -9999.000  -9999.000  -9999.000  -9999.000  -9999.000  -9999.000  -9999.000  -9999.000  -9999.000  -9999.000  -9999.000  -9999.000  -9999.000  -9999.000  -9999.000  -9999.000  -9999.000  -9999.000  -9999.000  -9999.000  -9999.000  -9999.000  -9999.000  -9999.000  -9999.000  -9999.000  -9999.000  -9999.000  -9999.000  -9999.000  -9999.000  -9999.000  -9999.000  -9999.000  -9999.000  -9999.000  -9999.000  -9999.000
-9999.000  -9999.000  -9999.000  -9999.000  -9999.000  -9999.000  -9999.000  -9999.000  -9999.000  -9999.000  -9999.000  -9999.000  -9999.000  -9999.000    159.090    158.030    156.740    155.900    155.000    154.280    154.100    153.010    151.230    151.420    150.880    152.420    153.510    154.560    154.340    154.100    153.590    152.900    151.940    150.490    149.670    151.590    151.560    151.570    151.100    151.620    152.830    151.330    151.490    152.710    153.780    153.890    153.280    150.270    148.710    148.150    148.600    148.730    147.720    147.000    147.540    148.430    148.770    149.170    149.820    151.020    152.780    154.410    156.240    157.640    158.350    160.810    160.550    160.600    160.620    159.880    158.940    157.110    154.690    152.760    150.750    148.620    147.120    145.360    143.860    142.820    142.120    140.780    139.530    139.060    138.770    137.730    136.630    136.020    135.600    135.020    133.940    134.950    134.730    134.390    133.750    133.310    133.410    133.320    133.140    132.950    132.950    132.990    132.870    133.070    133.080    132.670    132.450    131.850    131.640    131.490    131.440    131.440    131.740    132.620    132.850    132.710    132.640    132.660    132.840    132.960    133.190    133.510    133.810    134.410    134.600    134.790    134.480    134.480    134.480    135.140    135.960    135.560    135.840    136.490    136.890    136.360    136.360    136.360    137.660    137.740    137.930    138.800    139.640    140.700    141.990    143.850    146.930    150.230    149.050    148.100    147.260    147.770    149.630    148.280    147.040    146.380    147.340    147.330    149.130    150.540    151.300    152.630    153.390    154.940    156.780    162.850    165.320    165.530    168.140    174.920    173.530    172.470    172.500    172.700  -9999.000  -9999.000  -9999.000  -9999.000  -9999.000  -9999.000  -9999.000  -9999.000  -9999.000  -9999.000  -9999.000  -9999.000  -9999.000  -9999.000  -9999.000  -9999.000  -9999.000  -9999.000  -9999.000  -9999.000  -9999.000  -9999.000  -9999.000  -9999.000  -9999.000  -9999.000  -9999.000  -9999.000  -9999.000  -9999.000  -9999.000  -9999.000  -9999.000  -9999.000  -9999.000  -9999.000  -9999.000  -9999.000  -9999.000  -9999.000  -9999.000  -9999.000  -9999.000  -9999.000  -9999.000  -9999.000  -9999.000  -9999.000  -9999.000  -9999.000  -9999.000  -9999.000  -9999.000  -9999.000  -9999.000  -9999.000  -9999.000  -9999.000  -9999.000  -9999.000  -9999.000  -9999.000  -9999.000  -9999.000  -9999.000  -9999.000
-9999.000  -9999.000  -9999.000  -9999.000  -9999.000  -9999.000  -9999.000  -9999.000  -9999.000  -9999.000  -9999.000  -9999.000  -9999.000    159.100    158.170    157.720    156.500    155.690    155.020    154.450    154.310    153.560    152.330    151.760    151.670    153.010    154.190    155.480    155.090    154.780    154.120    153.410    152.600    151.120    150.380    151.620    152.520    153.080    153.510    152.950    154.210    153.050    152.710    152.820    154.000    154.710    154.630    151.620    152.040    150.640    150.120    149.330    148.170    147.610    149.030    150.680    150.990    151.450    151.630    151.470    151.570    152.250    153.840    155.000    156.580    159.650    159.860    160.230    159.970    158.900    157.840    156.200    153.580    150.980    149.340    148.060    146.690    144.670    144.320    144.960    143.990    142.610    141.450    140.740    140.200    138.570    136.580    135.920    135.760    134.930    134.770    135.670    135.270    134.660    134.020    133.820    133.770    133.280    133.360    133.150    133.090    132.870    132.870    133.100    133.150    132.530    131.960    131.940    132.010    131.900    131.620    131.440    131.810    132.380    132.740    132.700    132.640    132.750    132.930    133.100    133.220    133.540    133.680    134.550    134.400    134.690    134.630    134.480    134.480    135.340    135.720    135.790    135.710    136.480    136.930    136.360    136.360    136.360    138.140    138.690    138.540    138.760    139.110    140.000    140.810    141.990    144.320    145.250    145.270    144.390    144.790    146.200    147.240    146.100    144.810    144.900    147.130    149.130    150.290    151.750    153.950    155.670    155.490    154.480    156.570    161.940    167.150    167.710    179.810    177.920    175.660    173.910    173.110  -9999.000  -9999.000  -9999.000  -9999.000  -9999.000  -9999.000  -9999.000  -9999.000  -9999.000  -9999.000  -9999.000  -9999.000  -9999.000  -9999.000  -9999.000  -9999.000  -9999.000  -9999.000  -9999.000  -9999.000  -9999.000  -9999.000  -9999.000  -9999.000  -9999.000  -9999.000  -9999.000  -9999.000  -9999.000  -9999.000  -9999.000  -9999.000  -9999.000  -9999.000  -9999.000  -9999.000  -9999.000  -9999.000  -9999.000  -9999.000  -9999.000  -9999.000  -9999.000  -9999.000  -9999.000  -9999.000  -9999.000  -9999.000  -9999.000  -9999.000  -9999.000  -9999.000  -9999.000  -9999.000  -9999.000  -9999.000  -9999.000  -9999.000  -9999.000  -9999.000  -9999.000  -9999.000  -9999.000  -9999.000  -9999.000  -9999.000  -9999.000
-9999.000  -9999.000  -9999.000  -9999.000  -9999.000  -9999.000  -9999.000  -9999.000  -9999.000  -9999.000  -9999.000  -9999.000  -9999.000    159.120    157.740    157.140    156.790    156.300    155.560    155.060    154.840    154.270    152.910    152.310    153.070    154.110    155.270    155.790    155.680    155.500    154.720    153.690    152.580    151.750    151.660    151.850    152.860    153.920    154.910    155.310    154.770    155.050    154.640    154.030    154.480    155.080    155.210    154.640    153.170    152.160    150.260    150.000    148.790    149.190    150.000    151.940    152.750    153.200    153.470    153.720    153.730    154.230    154.770    154.060    154.500    158.110    158.780    159.640    159.270    158.100    156.840    155.440    153.880    152.070    150.260    148.230    146.700    147.060    147.030    146.500    145.390    144.040    142.590    140.910    139.920    138.700    137.160    135.950    135.540    135.180    135.400    135.750    135.450    134.840    134.170    133.930    133.750    133.540    133.740    133.680    133.440    133.150    132.870    133.020    133.310    132.890    132.000    132.220    132.440    132.300    131.700    131.440    132.130    132.620    132.650    132.650    132.670    132.840    133.020    133.200    133.320    133.400    133.780    134.400    134.550    134.550    134.630    135.010    134.640    135.610    135.640    135.900    136.110    136.280    136.900    136.360    136.360    136.360    138.440    138.140    138.340    138.640    139.090    139.730    140.080    139.960    139.960    141.190    141.260    141.910    142.870    143.870    145.620    144.320    143.920    144.330    146.380    149.340    151.460    153.470    156.180    159.850    158.930    156.430    157.550    160.150    168.100    174.570    176.400    177.860    176.600    175.570    175.080  -9999.000  -9999.000  -9999.000  -9999.000  -9999.000  -9999.000  -9999.000  -9999.000  -9999.000  -9999.000  -9999.000  -9999.000  -9999.000  -9999.000  -9999.000  -9999.000  -9999.000  -9999.000  -9999.000  -9999.000  -9999.000  -9999.000  -9999.000  -9999.000  -9999.000  -9999.000  -9999.000  -9999.000  -9999.000  -9999.000  -9999.000  -9999.000  -9999.000  -9999.000  -9999.000  -9999.000  -9999.000  -9999.000  -9999.000  -9999.000  -9999.000  -9999.000  -9999.000  -9999.000  -9999.000  -9999.000  -9999.000  -9999.000  -9999.000  -9999.000  -9999.000  -9999.000  -9999.000  -9999.000  -9999.000  -9999.000  -9999.000  -9999.000  -9999.000  -9999.000  -9999.000  -9999.000  -9999.000  -9999.000  -9999.000  -9999.000  -9999.000
-9999.000  -9999.000  -9999.000  -9999.000  -9999.000  -9999.000  -9999.000  -9999.000  -9999.000  -9999.000  -9999.000  -9999.000  -9999.000    159.020    157.870    157.360    156.630    155.530    155.180    154.380    154.250    154.210    153.550    153.690    154.170    154.810    155.680    156.350    156.340    156.310    155.600    154.500    153.720    153.380    153.080    153.200    154.060    155.320    155.910    156.430    156.290    155.100    155.580    155.480    155.390    154.540    155.210    154.410    153.190    152.130    150.920    149.610    150.750    152.520    152.370    153.410    154.570    154.900    154.820    155.220    155.330    155.790    156.470    156.760    156.100    156.070    157.540    158.560    158.720    157.450    155.990    155.110    153.620    151.760    150.380    149.220    150.250    150.310    149.380    147.990    146.320    144.150    142.530    140.790    139.350    138.700    137.300    136.320    135.590    135.180    135.180    135.520    135.380    134.960    134.260    134.210    133.920    133.800    133.680    133.480    133.480    133.430    133.300    133.270    133.010    132.800    132.600    132.750    132.650    132.560    131.620    131.440    131.890    132.710    132.660    132.670    132.810    133.030    133.230    133.450    133.470    133.750    133.850    134.060    134.760    134.790    134.760    135.350    135.240    135.630    136.020    135.990    136.030    136.310    136.800    137.470    137.040    136.360    137.850    138.160    138.080    138.660    139.240    139.810    139.960    139.960    139.960    140.180    140.500    141.400    142.630    142.960    143.780    143.920    144.280    145.310    146.490    148.420    151.560    155.990    165.890    164.680    167.380    160.480    161.420    163.160    162.520    167.350    174.420    175.870    175.860    175.700    175.890  -9999.000  -9999.000  -9999.000  -9999.000  -9999.000  -9999.000  -9999.000  -9999.000  -9999.000  -9999.000  -9999.000  -9999.000  -9999.000  -9999.000  -9999.000  -9999.000  -9999.000  -9999.000  -9999.000  -9999.000  -9999.000  -9999.000  -9999.000  -9999.000  -9999.000  -9999.000  -9999.000  -9999.000  -9999.000  -9999.000  -9999.000  -9999.000  -9999.000  -9999.000  -9999.000  -9999.000  -9999.000  -9999.000  -9999.000  -9999.000  -9999.000  -9999.000  -9999.000  -9999.000  -9999.000  -9999.000  -9999.000  -9999.000  -9999.000  -9999.000  -9999.000  -9999.000  -9999.000  -9999.000  -9999.000  -9999.000  -9999.000  -9999.000  -9999.000  -9999.000  -9999.000  -9999.000  -9999.000  -9999.000  -9999.000  -9999.000  -9999.000
-9999.000  -9999.000  -9999.000  -9999.000  -9999.000  -9999.000  -9999.000  -9999.000  -9999.000  -9999.000  -9999.000  -9999.000  -9999.000  -9999.000  -9999.000  -9999.000    156.600    155.740    155.340    154.620    154.390    154.230    154.180    154.440    155.020    155.570    156.270    156.880    156.930    156.930    156.510    155.970    155.500    155.250    154.830    155.020    155.350    156.470    156.800    157.230    157.350    155.460    156.320    156.960    156.430    156.490    155.070    155.090    153.700    152.340    150.930    150.220    152.740    155.050    155.080    155.520    156.000    156.290    156.160    156.390    156.570    157.040    157.620    158.480    157.230    156.070    157.080    157.750    157.990    157.840    157.270    156.650    155.170    154.540    152.770    152.300    152.390    151.960    149.870    147.850    146.100    144.140    142.720    141.160    140.010    140.130    138.010    137.030    135.840    135.490    135.180    135.390    135.260    135.250    134.940    134.810    134.570    134.480    133.930    133.770    133.910    133.960    133.550    133.400    133.300    132.820    132.940    132.560    132.560    132.590    132.100    131.650    132.440    132.650    132.880    132.800    132.890    133.140    133.480    133.760    133.950    133.940    133.990    134.150    134.420    134.740    135.170    135.590    135.550    135.920    136.440    136.050    135.990    136.260    136.600    136.660    137.290    137.710    138.160    138.070    138.450    138.690    139.140    139.740    140.120    139.960    140.510    142.490    143.570    143.880    145.680    145.860    145.070    145.140    147.210    147.930    148.490    148.850    151.140    155.800    164.840    172.050    171.970    168.330    171.890    176.630    168.700    173.620    174.550    175.010    175.450    175.570    175.770  -9999.000  -9999.000  -9999.000  -9999.000  -9999.000  -9999.000  -9999.000  -9999.000  -9999.000  -9999.000  -9999.000  -9999.000  -9999.000  -9999.000  -9999.000  -9999.000  -9999.000  -9999.000  -9999.000  -9999.000  -9999.000  -9999.000  -9999.000  -9999.000  -9999.000  -9999.000  -9999.000  -9999.000  -9999.000  -9999.000  -9999.000  -9999.000  -9999.000  -9999.000  -9999.000  -9999.000  -9999.000  -9999.000  -9999.000  -9999.000  -9999.000  -9999.000  -9999.000  -9999.000  -9999.000  -9999.000  -9999.000  -9999.000  -9999.000  -9999.000  -9999.000  -9999.000  -9999.000  -9999.000  -9999.000  -9999.000  -9999.000  -9999.000  -9999.000  -9999.000  -9999.000  -9999.000  -9999.000  -9999.000  -9999.000  -9999.000  -9999.000
-9999.000  -9999.000  -9999.000  -9999.000  -9999.000  -9999.000  -9999.000  -9999.000  -9999.000  -9999.000  -9999.000  -9999.000  -9999.000  -9999.000  -9999.000  -9999.000    156.580    155.710    155.380    155.140    154.870    154.590    154.760    154.940    155.600    156.290    157.340    157.750    157.680    157.710    157.530    157.410    157.530    157.130    156.640    157.400    157.910    158.610    158.980    158.920    158.470    156.970    156.840    157.820    157.660    157.180    156.390    155.490    153.920    152.540    151.730    150.950    151.850    154.670    156.040    156.830    157.150    157.580    157.520    157.480    157.770    158.480    159.000    159.460    158.210    156.700    156.590    157.260    157.850    158.350    159.090    158.590    157.180    156.120    154.960    154.060    152.120    150.840    149.060    147.240    145.260    143.820    142.700    142.180    141.540    140.650    139.120    138.040    136.550    136.430    135.840    135.570    135.730    135.380    135.210    135.290    134.730    134.600    134.180    133.990    133.980    134.180    134.240    133.470    133.280    133.100    133.550    132.970    132.620    132.710    132.710    132.630    132.630    133.010    133.110    133.240    133.200    133.400    133.610    133.880    133.940    133.940    133.950    134.480    134.720    134.830    135.540    135.500    135.660    136.150    136.410    136.170    136.540    136.540    137.300    137.340    136.960    137.300    138.300    138.190    138.340    138.670    138.920    139.460    139.900    140.200    141.000    143.620    147.030    148.620    153.390    152.760    149.800    147.610    150.530    153.380    154.060    150.660    151.510    155.520    161.870    176.750    180.720    178.580    183.640    183.670    175.170    170.820    174.450    175.860    176.520    176.980    177.520  -9999.000  -9999.000  -9999.000  -9999.000  -9999.000  -9999.000  -9999.000  -9999.000  -9999.000  -9999.000  -9999.000  -9999.000  -9999.000  -9999.000  -9999.000  -9999.000  -9999.000  -9999.000  -9999.000  -9999.000  -9999.000  -9999.000  -9999.000  -9999.000  -9999.000  -9999.000  -9999.000  -9999.000  -9999.000  -9999.000  -9999.000  -9999.000  -9999.000  -9999.000  -9999.000  -9999.000  -9999.000  -9999.000  -9999.000  -9999.000  -9999.000  -9999.000  -9999.000  -9999.000  -9999.000  -9999.000  -9999.000  -9999.000  -9999.000  -9999.000  -9999.000  -9999.000  -9999.000  -9999.000  -9999.000  -9999.000  -9999.000  -9999.000  -9999.000  -9999.000  -9999.000  -9999.000  -9999.000  -9999.000  -9999.000  -9999.000  -9999.000
-9999.000  -9999.000  -9999.000  -9999.000  -9999.000  -9999.000  -9999.000  -9999.000  -9999.000  -9999.000  -9999.000  -9999.000  -9999.000  -9999.000  -9999.000  -9999.000  -9999.000  -9999.000  -9999.000  -9999.000  -9999.000  -9999.000  -9999.000    155.310    156.070    156.930    157.660    158.190    158.950    158.790    158.970    159.100    159.050    158.350    158.470    159.490    159.760    159.850    160.510    160.450    159.730    158.020    158.250    158.600    158.280    157.660    156.290    155.130    154.750    154.770    153.900    153.140    152.050    152.140    154.260    156.120    156.880    157.400    158.260    158.380    158.960    159.490    160.040    160.060    159.330    157.600    157.920    158.230    158.480    159.140    159.800    159.400    158.080    157.090    156.250    154.790    152.700    150.320    148.590    146.720    145.390    144.570    144.390    143.910    142.620    141.450    140.270    138.950    137.700    136.770    136.210    135.570    136.150    136.010    135.550    135.600    135.370    134.980    134.310    134.180    133.980    134.260    134.180    133.530    133.100    133.400    133.540    133.080    132.830    132.940    132.920    132.740    132.630    132.980    133.650    133.710    133.590    133.630    133.900    133.940    133.940    133.940    134.360    134.090    134.420    134.820    135.040    135.630    136.070    136.390    136.220    136.520    137.210    137.020    137.240    137.300    137.370    137.420    137.490    138.140    138.050    138.470    138.930    139.350    139.980    140.530    141.250    143.810    147.840    158.110    157.380    157.440    154.680    151.200    149.690    152.690    153.140    152.800    154.840    155.790    161.630    173.420    184.200    184.750    186.990    186.310    179.600    176.490    176.060    177.600    178.590    179.260    180.870  -9999.000  -9999.000  -9999.000  -9999.000  -9999.000  -9999.000  -9999.000  -9999.000  -9999.000  -9999.000  -9999.000  -9999.000  -9999.000  -9999.000  -9999.000  -9999.000  -9999.000  -9999.000  -9999.000  -9999.000  -9999.000  -9999.000  -9999.000  -9999.000  -9999.000  -9999.000  -9999.000  -9999.000  -9999.000  -9999.000  -9999.000  -9999.000  -9999.000  -9999.000  -9999.000  -9999.000  -9999.000  -9999.000  -9999.000  -9999.000  -9999.000  -9999.000  -9999.000  -9999.000  -9999.000  -9999.000  -9999.000  -9999.000  -9999.000  -9999.000  -9999.000  -9999.000  -9999.000  -9999.000  -9999.000  -9999.000  -9999.000  -9999.000  -9999.000  -9999.000  -9999.000  -9999.000  -9999.000  -9999.000  -9999.000  -9999.000  -9999.000
-9999.000  -9999.000  -9999.000  -9999.000  -9999.000  -9999.000  -9999.000  -9999.000  -9999.000  -9999.000  -9999.000  -9999.000  -9999.000  -9999.000  -9999.000  -9999.000  -9999.000  -9999.000  -9999.000  -9999.000  -9999.000  -9999.000  -9999.000  -9999.000  -9999.000  -9999.000  -9999.000  -9999.000    159.100    159.940    160.010    159.820    160.060    159.650    159.570    161.170    161.190    161.360    161.620    161.540    161.110    159.430    159.210    159.340    158.910    158.500    157.880    157.090    156.880    156.720    155.890    155.140    154.270    152.950    152.690    154.190    155.220    156.620    157.890    158.630    159.800    160.160    160.940    161.100    160.840    158.930    159.460    159.430    159.480    159.620    160.220    160.380    159.630    157.960    156.340    154.330    152.220    150.730    149.260    148.560    147.320    146.490    146.420    145.050    143.640    142.730    141.320    140.070    138.860    137.360    136.470    136.290    136.330    136.250    135.980    136.000    136.060    135.430    134.900    134.540    134.270    134.090    134.110    133.840    133.540    133.600    133.600    133.280    133.050    133.170    133.100    132.930    132.850    133.300    134.150    134.210    133.970    133.910    133.950    133.940    133.940    133.990    134.070    134.040    134.420    134.790    135.160    135.920    135.860    136.360    136.250    136.760    136.900    137.280    137.710    137.730    137.670    137.580    137.600    138.010    138.060    138.380    138.810    139.380    140.100    140.550    141.220    143.310    147.400    154.290    161.480    165.420    162.420    157.380    153.270    152.020    153.130    154.530    157.680    158.410    160.360    167.940    181.460    189.290    191.250    194.830    190.110    183.990    180.220    181.980    180.930    181.770    182.810  -9999.000  -9999.000  -9999.000  -9999.000  -9999.000  -9999.000  -9999.000  -9999.000  -9999.000  -9999.000  -9999.000  -9999.000  -9999.000  -9999.000  -9999.000  -9999.000  -9999.000  -9999.000  -9999.000  -9999.000  -9999.000  -9999.000  -9999.000  -9999.000  -9999.000  -9999.000  -9999.000  -9999.000  -9999.000  -9999.000  -9999.000  -9999.000  -9999.000  -9999.000  -9999.000  -9999.000  -9999.000  -9999.000  -9999.000  -9999.000  -9999.000  -9999.000  -9999.000  -9999.000  -9999.000  -9999.000  -9999.000  -9999.000  -9999.000  -9999.000  -9999.000  -9999.000  -9999.000  -9999.000  -9999.000  -9999.000  -9999.000  -9999.000  -9999.000  -9999.000  -9999.000  -9999.000  -9999.000  -9999.000  -9999.000  -9999.000  -9999.000
-9999.000  -9999.000  -9999.000  -9999.000  -9999.000  -9999.000  -9999.000  -9999.000  -9999.000  -9999.000  -9999.000  -9999.000  -9999.000  -9999.000  -9999.000  -9999.000  -9999.000  -9999.000  -9999.000  -9999.000  -9999.000  -9999.000  -9999.000  -9999.000  -9999.000  -9999.000  -9999.000  -9999.000    160.050    160.390    160.570    160.840    161.070    160.700    161.120    162.390    162.630    162.510    162.530    162.780    162.040    160.630    160.360    160.260    160.100    159.660    159.220    158.920    158.340    157.920    157.390    156.560    155.350    154.110    153.450    154.450    155.190    156.410    157.410    158.830    160.600    161.170    161.650    162.650    162.120    160.590    161.180    160.570    160.660    160.730    161.340    161.650    160.610    158.990    157.980    156.420    155.000    153.660    153.280    151.660    149.080    148.270    147.590    145.900    144.090    142.910    141.520    140.020    138.830    137.360    137.370    136.660    136.390    136.350    136.680    136.350    136.010    136.000    135.360    134.960    134.700    134.600    134.290    133.880    133.970    133.950    133.760    133.600    133.260    133.400    133.290    133.140    133.160    133.710    134.060    134.630    134.340    134.150    134.040    133.970    133.940    133.940    133.940    134.050    134.440    134.780    135.110    135.390    135.820    136.400    136.060    136.750    136.840    136.860    137.140    137.730    137.680    137.580    137.780    137.860    138.540    138.650    138.960    139.440    139.950    140.540    141.540    143.140    145.870    150.260    155.640    161.770    168.240    167.950    160.540    154.840    154.410    155.910    159.760    162.050    163.350    168.090    184.860    191.470    190.160    193.350    193.240    192.110    185.480    183.640    180.490    183.700    182.800  -9999.000  -9999.000  -9999.000  -9999.000  -9999.000  -9999.000  -9999.000  -9999.000  -9999.000  -9999.000  -9999.000  -9999.000  -9999.000  -9999.000  -9999.000  -9999.000  -9999.000  -9999.000  -9999.000  -9999.000  -9999.000  -9999.000  -9999.000  -9999.000  -9999.000  -9999.000  -9999.000  -9999.000  -9999.000  -9999.000  -9999.000  -9999.000  -9999.000  -9999.000  -9999.000  -9999.000  -9999.000  -9999.000  -9999.000  -9999.000  -9999.000  -9999.000  -9999.000  -9999.000  -9999.000  -9999.000  -9999.000  -9999.000  -9999.000  -9999.000  -9999.000  -9999.000  -9999.000  -9999.000  -9999.000  -9999.000  -9999.000  -9999.000  -9999.000  -9999.000  -9999.000  -9999.000  -9999.000  -9999.000  -9999.000  -9999.000  -9999.000
-9999.000  -9999.000  -9999.000  -9999.000  -9999.000  -9999.000  -9999.000  -9999.000  -9999.000  -9999.000  -9999.000  -9999.000  -9999.000  -9999.000  -9999.000  -9999.000  -9999.000  -9999.000  -9999.000  -9999.000  -9999.000  -9999.000  -9999.000  -9999.000  -9999.000  -9999.000  -9999.000  -9999.000  -9999.000  -9999.000  -9999.000  -9999.000  -9999.000  -9999.000    161.430  -9999.000  -9999.000  -9999.000  -9999.000    162.490    162.110    161.550    161.240    161.060    161.170    160.920    160.500    160.040    159.250    158.530    157.590    156.600    155.180    153.570    155.040    156.830    157.410    157.710    158.110    159.470    161.090    161.540    162.020    162.960    162.800    161.720    161.630    161.860    161.860    161.380    161.240    160.910    160.170    158.780    158.000    156.350    154.990    154.010    154.070    153.020    150.550    149.230    148.020    146.070    144.090    142.940    141.870    140.460    139.220    137.600    137.350    137.250    137.030    137.410    137.220    136.700    136.160    136.110    135.640    135.260    134.920    134.610    134.210    133.880    134.340    134.230    134.040    133.810    133.500    133.610    133.510    133.420    133.540    133.830    134.710    134.710    134.460    134.480    134.420    134.320    134.140    133.970    133.950    133.990    134.360    134.770    135.160    135.510    135.620    135.690    136.290    136.560    136.590    136.840    136.820    137.620    137.800    137.700    137.790    137.940    138.250    138.740    139.030    139.300    139.710    140.500    141.600    143.230    145.660    148.790    152.670    157.530    167.340    178.160    172.880    162.680    157.200    158.260    164.450    152.630    152.630    168.260    182.700    191.910    192.240    190.220    188.490    186.440    182.330    177.880    176.610    179.040    180.440    178.840  -9999.000  -9999.000  -9999.000  -9999.000  -9999.000  -9999.000  -9999.000  -9999.000  -9999.000  -9999.000  -9999.000  -9999.000  -9999.000  -9999.000  -9999.000  -9999.000  -9999.000  -9999.000  -9999.000  -9999.000  -9999.000  -9999.000  -9999.000  -9999.000  -9999.000  -9999.000  -9999.000  -9999.000  -9999.000  -9999.000  -9999.000  -9999.000  -9999.000  -9999.000  -9999.000  -9999.000  -9999.000  -9999.000  -9999.000  -9999.000  -9999.000  -9999.000  -9999.000  -9999.000  -9999.000  -9999.000  -9999.000  -9999.000  -9999.000  -9999.000  -9999.000  -9999.000  -9999.000  -9999.000  -9999.000  -9999.000  -9999.000  -9999.000  -9999.000  -9999.000  -9999.000  -9999.000  -9999.000  -9999.000  -9999.000  -9999.000
-9999.000  -9999.000  -9999.000  -9999.000  -9999.000  -9999.000  -9999.000  -9999.000  -9999.000  -9999.000  -9999.000  -9999.000  -9999.000  -9999.000  -9999.000  -9999.000  -9999.000  -9999.000  -9999.000  -9999.000  -9999.000  -9999.000  -9999.000  -9999.000  -9999.000  -9999.000  -9999.000  -9999.000  -9999.000  -9999.000  -9999.000  -9999.000  -9999.000  -9999.000  -9999.000  -9999.000  -9999.000  -9999.000  -9999.000    162.370    162.620    162.400    162.130    162.030    161.620    161.360    161.010    160.400    159.460    158.350    157.350    156.530    155.090    155.510    157.960    158.580    159.490    159.820    159.500    160.670    161.580    161.960    162.320    162.880    162.730    162.300    161.850    162.290    162.110    161.170    160.290    158.900    157.590    156.190    155.640    154.660    153.490    152.600    152.280    151.050    149.540    148.370    147.060    145.430    143.450    142.580    141.030    139.720    138.600    138.140    137.820    137.300    138.420    139.140    138.270    137.160    136.330    136.490    136.080    135.420    134.840    134.670    134.400    134.290    134.420    134.170    134.010    133.870    133.780    133.840    133.760    133.760    133.900    133.810    134.710    134.450    134.610    134.820    135.020    134.890    134.790    134.600    134.110    134.150    135.070    135.560    135.500    135.960    136.230    136.220    136.510    136.290    137.590    136.590    137.180    137.920    137.740    138.060    137.860    138.110    138.070    138.640    139.200    139.520    139.930    140.670    141.470    143.180    145.680    149.160    154.490    162.210    174.890    182.580    178.160    165.700    159.970    159.810    152.630    152.630    152.630    152.630    179.350    193.910    195.120    191.780    195.320    196.120    188.790    180.340    174.710    175.610    177.100    177.170  -9999.000  -9999.000  -9999.000  -9999.000  -9999.000  -9999.000  -9999.000  -9999.000  -9999.000  -9999.000  -9999.000  -9999.000  -9999.000  -9999.000  -9999.000  -9999.000  -9999.000  -9999.000  -9999.000  -9999.000  -9999.000  -9999.000  -9999.000  -9999.000  -9999.000  -9999.000  -9999.000  -9999.000  -9999.000  -9999.000  -9999.000  -9999.000  -9999.000  -9999.000  -9999.000  -9999.000  -9999.000  -9999.000  -9999.000  -9999.000  -9999.000  -9999.000  -9999.000  -9999.000  -9999.000  -9999.000  -9999.000  -9999.000  -9999.000  -9999.000  -9999.000  -9999.000  -9999.000  -9999.000  -9999.000  -9999.000  -9999.000  -9999.000  -9999.000  -9999.000  -9999.000  -9999.000  -9999.000  -9999.000  -9999.000  -9999.000
-9999.000  -9999.000  -9999.000  -9999.000  -9999.000  -9999.000  -9999.000  -9999.000  -9999.000  -9999.000  -9999.000  -9999.000  -9999.000  -9999.000  -9999.000  -9999.000  -9999.000  -9999.000  -9999.000  -9999.000  -9999.000  -9999.000  -9999.000  -9999.000  -9999.000  -9999.000  -9999.000  -9999.000  -9999.000  -9999.000  -9999.000  -9999.000  -9999.000  -9999.000  -9999.000  -9999.000  -9999.000  -9999.000  -9999.000  -9999.000    162.790    162.780    162.690    162.520    162.110    161.550    161.080    160.610    159.780    158.990    158.020    157.140    155.520    156.500    158.500    159.240    160.080    159.990    160.040    160.960    161.680    162.270    162.900    162.630    162.680    161.890    161.920    161.890    160.640    159.990    158.060    156.770    155.130    153.170    151.750    150.490    149.520    149.410    149.380    147.960    146.480    146.200    145.650    145.020    142.660    141.630    140.240    138.810    138.250    137.870    137.660    138.370    139.300    139.240    138.770    138.300    137.760    137.040    136.190    135.380    134.840    134.620    134.460    134.380    134.320    134.070    133.870    134.140    133.930    133.940    134.020    134.100    133.970    133.810    134.490    134.390    134.340    134.640    135.190    135.270    135.250    135.140    135.180    135.370    135.350    135.900    136.120    136.320    136.160    136.340    136.580    136.810    137.160    137.590    138.410    137.960    137.980    138.140    137.940    138.210    138.460    138.620    139.160    139.490    140.050    140.590    141.420    143.440    146.290    150.660    160.110    176.300    182.490    185.500    180.330    167.150    159.510    157.420    162.700    152.630    152.630    152.630    160.370    193.780    194.860    193.770    204.570    205.120    191.560    179.780    174.500    172.500    174.020    176.590    177.260    175.840  -9999.000  -9999.000  -9999.000  -9999.000  -9999.000  -9999.000  -9999.000  -9999.000  -9999.000  -9999.000  -9999.000  -9999.000  -9999.000  -9999.000  -9999.000  -9999.000  -9999.000  -9999.000  -9999.000  -9999.000  -9999.000  -9999.000  -9999.000  -9999.000  -9999.000  -9999.000  -9999.000  -9999.000  -9999.000  -9999.000  -9999.000  -9999.000  -9999.000  -9999.000  -9999.000  -9999.000  -9999.000  -9999.000  -9999.000  -9999.000  -9999.000  -9999.000  -9999.000  -9999.000  -9999.000  -9999.000  -9999.000  -9999.000  -9999.000  -9999.000  -9999.000  -9999.000  -9999.000  -9999.000  -9999.000  -9999.000  -9999.000  -9999.000  -9999.000  -9999.000  -9999.000  -9999.000  -9999.000  -9999.000
-9999.000  -9999.000  -9999.000  -9999.000  -9999.000  -9999.000  -9999.000  -9999.000  -9999.000  -9999.000  -9999.000  -9999.000  -9999.000  -9999.000  -9999.000  -9999.000  -9999.000  -9999.000  -9999.000  -9999.000  -9999.000  -9999.000  -9999.000  -9999.000  -9999.000  -9999.000  -9999.000  -9999.000  -9999.000  -9999.000  -9999.000  -9999.000  -9999.000  -9999.000  -9999.000  -9999.000  -9999.000  -9999.000  -9999.000  -9999.000  -9999.000    163.060    163.120    162.880    162.540    161.840    161.510    161.070    160.410    159.560    158.340    157.610    156.880    156.060    156.340    157.380    157.750    158.760    159.370    160.350    161.370    162.330    163.040    162.430    162.430    162.500    162.450    162.080    162.000    159.990    158.040    156.450    154.580    152.610    150.770    148.950    147.890    146.830    145.660    144.870    143.930    143.450    142.690    142.350    141.120    140.830    140.220    139.040    139.760    138.440    139.240    139.310    140.000    139.560    138.820    137.920    137.610    136.650    135.910    135.380    135.120    134.890    134.690    134.710    134.190    134.140    134.000    134.240    134.000    133.940    133.840    134.060    133.810    133.810    133.940    134.820    134.210    134.610    135.240    135.520    135.160    135.280    135.150    135.590    135.670    135.900    135.880    136.330    136.320    136.370    136.340    136.330    136.810    137.300    137.490    137.460    138.300    138.270    138.010    138.070    138.460    138.680    139.000    139.700    140.080    140.900    141.820    144.200    147.640    152.280    160.960    181.260    186.310    183.870    174.400    160.030    153.600    154.200    166.120    156.930    152.630    152.630    152.630    180.400    183.120    180.510    197.220    202.630    186.030    178.680    173.280    171.070    172.440    174.920    174.860    173.500    172.590    172.420  -9999.000  -9999.000  -9999.000  -9999.000  -9999.000  -9999.000  -9999.000  -9999.000  -9999.000  -9999.000  -9999.000  -9999.000  -9999.000  -9999.000  -9999.000  -9999.000  -9999.000  -9999.000  -9999.000  -9999.000  -9999.000  -9999.000  -9999.000  -9999.000  -9999.000  -9999.000  -9999.000  -9999.000  -9999.000  -9999.000  -9999.000  -9999.000  -9999.000  -9999.000  -9999.000  -9999.000  -9999.000  -9999.000  -9999.000  -9999.000  -9999.000  -9999.000  -9999.000  -9999.000  -9999.000  -9999.000  -9999.000  -9999.000  -9999.000  -9999.000  -9999.000  -9999.000  -9999.000  -9999.000  -9999.000  -9999.000  -9999.000  -9999.000  -9999.000  -9999.000  -9999.000  -9999.000
-9999.000  -9999.000  -9999.000  -9999.000  -9999.000  -9999.000  -9999.000  -9999.000  -9999.000  -9999.000  -9999.000  -9999.000  -9999.000  -9999.000  -9999.000  -9999.000  -9999.000  -9999.000  -9999.000  -9999.000  -9999.000  -9999.000  -9999.000  -9999.000  -9999.000  -9999.000  -9999.000  -9999.000  -9999.000  -9999.000  -9999.000  -9999.000  -9999.000  -9999.000  -9999.000  -9999.000  -9999.000  -9999.000  -9999.000  -9999.000  -9999.000  -9999.000  -9999.000  -9999.000    162.970    162.250    161.650    161.310    161.190    160.100    159.620    158.570    158.260    158.040    158.040    157.800    158.430    159.250    159.460    160.380    161.160    161.810    162.440    162.430    162.430    162.720    163.010    163.250    162.490    160.750    158.780    156.450    154.930    152.880    151.480    150.870    149.980    148.960    147.910    146.650    145.550    143.980    142.320    141.600    141.060    141.320    141.780    141.140    141.070    140.190    140.410    139.890    140.190    139.430    138.740    137.420    137.230    136.480    136.070    135.610    135.470    135.320    135.010    135.130    134.540    134.720    135.250    135.090    133.940    133.980    134.020    133.840    133.960    133.950    133.810    134.050    134.180    134.530    135.010    136.160    135.470    136.260    136.000    136.000    135.870    135.750    136.240    136.560    136.470    136.400    136.330    136.350    136.870    137.350    137.260    137.260    137.680    137.740    138.070    138.200    138.370    138.580    138.840    139.510    140.390    140.880    142.070    144.350    148.340    153.300    163.830    178.150    180.520    170.160    164.010    152.860    150.690    151.780    174.310    152.630    152.630    152.630    152.630    181.870    173.320    174.830    188.640    195.680    192.630    175.480    171.780    169.290    171.360    171.770    170.800    170.210    170.900    171.880    173.000    174.200    175.800  -9999.000  -9999.000  -9999.000  -9999.000    179.550    178.870    180.320    180.840    180.350  -9999.000  -9999.000  -9999.000  -9999.000  -9999.000  -9999.000  -9999.000  -9999.000  -9999.000  -9999.000  -9999.000  -9999.000  -9999.000  -9999.000  -9999.000  -9999.000  -9999.000  -9999.000  -9999.000  -9999.000  -9999.000  -9999.000  -9999.000  -9999.000  -9999.000  -9999.000  -9999.000  -9999.000  -9999.000  -9999.000  -9999.000  -9999.000  -9999.000  -9999.000  -9999.000  -9999.000  -9999.000  -9999.000  -9999.000  -9999.000  -9999.000  -9999.000  -9999.000  -9999.000  -9999.000  -9999.000  -9999.000  -9999.000  -9999.000  -9999.000
